ply
format ascii 1.0
element vertex 248
property double x
property double y
property double z
property double nx
property double ny
property double nz
end_header
-0.689288894963131 0.039855110227727 1.535020240375206 -0.187448997710831 -0.357099893835528 -0.915064226751248
-0.801076571559642 0.255110214604651 1.211480664573384 -0.142248091503770 -0.494106456209227 -0.857685426246648
-0.759607227354690 0.180472255920810 1.295252913336796 -0.173096507904141 -0.359389824976573 -0.916993212981808
-0.704935661934508 0.144697004479976 1.339864659279580 -0.208895468569803 -0.250801550173615 -0.945230800197240
-0.659933172136161 -0.033791017440084 1.384647325960403 -0.239386309070323 -0.042799581852892 -0.969980613632512
-0.666804931573404 -0.224842476695073 1.365755144835815 -0.234416054473776 0.172295957020337 -0.956746161005830
-0.615262220214162 0.022230968337940 1.359343225719079 -0.271684859998536 0.080990601776148 -0.958972293276252
-0.624884168393743 0.129986369574678 1.360556601429008 -0.266740323453473 0.087058905806273 -0.959828290249746
-0.643189898848471 0.267151949145502 1.388667869465720 -0.248521395890654 0.070876641661806 -0.966029822237028
-0.632552013536523 0.422119285985472 1.382665261240757 -0.257711686707828 0.044178424341557 -0.965211351651494
-0.826412725350571 0.024740299554930 1.304755908689504 -0.122526052791961 0.401431732611544 -0.907656284305747
-0.811315523633891 0.114792222325841 1.279404692490007 -0.134334640028645 0.422705956428957 -0.896255476350273
-0.786747511439526 0.194998908650993 1.253572605137836 -0.149445921889366 0.448409626471267 -0.881246119604811
-0.603700251936559 0.091521657210084 1.339649891547828 -0.146264580820054 -0.573834355135311 -0.805804446043813
-0.347056121830275 -0.649905649991279 1.588304416925890 -0.298344444832924 -0.061009474618357 -0.952506396957063
-0.388030593875139 -0.340571114828947 1.393252587387597 -0.306184419684042 -0.201577648422117 -0.930385701093560
-0.380326190191810 -0.113795765447427 1.475815189961363 -0.289493022087583 -0.260869979233646 -0.920945516356552
-0.472312873461856 0.063423122501446 1.222478862964924 -0.273272320049546 -0.355207982211543 -0.893951636537426
-0.527318914729220 0.317803629320733 1.170579484743116 -0.234100050058937 -0.460935799892377 -0.855999623212521
-0.509669456957860 -0.023120971111016 1.313861270538031 -0.244494523253054 -0.130888420813731 -0.960776066206975
-0.477184153251222 -0.099826239727248 1.317249180498079 -0.268535700712918 0.005589728441352 -0.963253514075383
-0.479031384673099 0.024841616644947 1.317824789785192 -0.267030072105884 -0.005150148299384 -0.963674434943472
-0.480421281370553 0.156517342737219 1.312950002182738 -0.266392313731897 -0.021131028466197 -0.963633029124950
-0.535400908282490 -0.023721879530892 1.300429207304119 -0.228249406164874 0.192197554562760 -0.954443454902111
-0.477205814424334 0.154518372255229 1.329178829990414 -0.263787684575320 0.138903879507467 -0.954526987425796
-0.465834796577014 0.135119610908821 1.665309085703271 -0.216690516214969 0.185516518721368 -0.958451272347215
-0.132850900794499 -0.125099626003549 1.256885237677859 -0.398387115936886 -0.267292007435440 -0.877406797680883
-0.206377147337616 0.264239921678787 1.315876817488463 -0.319839711045877 -0.428842799500063 -0.844864730329677
-0.306013137980606 0.151577528806920 1.194245715325376 -0.298578471124132 -0.337032957234782 -0.892893992766640
-0.306712272908404 0.100589532331036 1.238032708954556 -0.296351741785618 -0.221221903755195 -0.929105222479972
-0.277351771032761 -0.091356279023886 1.268366808662016 -0.317338222851301 0.001224625941304 -0.948311632644502
-0.250183254466523 -0.150941975525802 1.248067184349366 -0.337500683625489 0.123909586583927 -0.933134343438783
-0.162869038356279 0.056262508269100 1.396049987130740 -0.359351327056458 0.042066301291197 -0.932253747666611
-0.147926034068285 0.105808423164092 1.428376332980731 -0.361904476693513 0.077053365860785 -0.929025257223246
-0.195157024110804 0.293431210291317 1.247591440118763 -0.376965272076093 0.026214330837818 -0.925856356303353
-0.120161934422877 0.400938880418262 1.444490795181117 -0.373397909474014 0.020627179475873 -0.927441923069745
-0.483905085750668 -0.217239993782177 1.275318350389663 -0.144527943698016 0.503820660497283 -0.851631619625824
-0.487251099244288 0.098075299260068 1.367171393932652 -0.145177002183175 0.366287172143169 -0.919106819450529
-0.682264375470725 -0.458299962612702 1.009455973725757 -0.012695057919846 0.766646936532817 -0.641943385517179
-0.056866258639455 0.538588526671396 0.632712020851782 -0.334291071443805 -0.850424645880364 -0.406235647416878
0.111458987623337 -0.539404652218139 1.160773051688101 -0.507118491639007 -0.108011899000216 -0.855081437707629
0.081846342740981 -0.368187138625397 1.178404415312212 -0.481657692936069 -0.159504202072964 -0.861721693098515
0.011815604807768 -0.180204347821235 1.189882384871626 -0.432137959770352 -0.224921363535891 -0.873308172382849
0.049156979547781 0.055070067675093 1.386540805800112 -0.393202002156996 -0.278776513852957 -0.876171125308134
-0.147886279318376 0.180496238160109 1.110306723797831 -0.333045324394582 -0.365654450563984 -0.869124637023746
-0.140776981398803 -0.061237251849798 1.200704413491171 -0.337428896759190 -0.098135348113171 -0.936221764905400
-0.131978169478186 -0.126100026262535 1.203469274444241 -0.344299653974420 0.030086949239336 -0.938377601905845
-0.063661332947928 -0.005050402465022 1.343997468460664 -0.354566576845117 0.011922167924906 -0.934954760668293
-0.111712810770210 0.125012856448272 1.207325282536251 -0.356860089059545 -0.010323487370787 -0.934100798867509
-0.098305933457906 -0.038524684332151 1.170698292195854 -0.368223334761273 0.193961451371773 -0.909280226948240
-0.059806899407068 0.126685618867690 1.164946152657742 -0.400863977559904 0.143604765038495 -0.904812545753589
0.030575836955471 0.151892108906912 1.389110615028367 -0.394029207190180 0.168680128243812 -0.903486578880245
0.414535087173458 -0.192523523560714 1.139588862844316 -0.598053145493728 -0.187537599226994 -0.779206060064494
0.300260261316344 0.111811479388683 1.139544941033163 -0.523255829980198 -0.332715623800748 -0.784540406907518
0.152203549539635 0.129794298173927 1.105974400932509 -0.460850892838929 -0.305807095509348 -0.833125725749540
0.074728960035507 0.072368830208370 1.104210937304972 -0.426485124651358 -0.202193255247145 -0.881605538766448
0.062176240735394 -0.118049762724073 1.127302623886516 -0.419701979236379 0.026128535202116 -0.907285813993175
0.089836633478233 -0.127348708478059 1.106194886544554 -0.441816232313677 0.110310608806141 -0.890297695408095
0.114422867281841 0.052823124407008 1.101086616641666 -0.461421533836293 0.041997758053138 -0.886186411784040
0.122159214542294 0.114820501288201 1.078007981968814 -0.473171607480100 0.069630274639575 -0.878214241929790
0.148415309048321 0.265658201075313 1.078045801016911 -0.490424425799941 0.024183301173704 -0.871148122033871
0.150883350599351 0.336231215392859 1.087178638458360 -0.488456961330244 0.043842370782992 -0.871485882531755
0.010908111958882 -0.173614771618406 0.958222264377899 -0.371771265669800 0.525821374763401 -0.765047716070182
-0.009648128146411 -0.110740064052877 0.937981319943618 -0.357355061900497 0.554040198549192 -0.751888833622141
-0.052913872182436 -0.847122549737564 0.731581085214422 -0.232394034467976 0.876759179047306 -0.421053861993916
0.392634776748262 0.229469101970255 0.354205863181093 -0.591233874344561 -0.755712843276921 -0.281674642688743
0.614258128091183 -0.378444449377888 0.948756304964536 -0.701538763320664 -0.182930645569964 -0.688752308504204
0.453819983893944 -0.341209644026303 0.992497531797884 -0.622092865648089 -0.152793202727058 -0.767889773151171
0.448357553951968 -0.128428987790032 1.093042022417663 -0.575345103055138 -0.229853151139293 -0.784949387732617
0.325077041850899 -0.066663081326132 0.994362591538652 -0.547038316619449 -0.234725648001754 -0.803525326495883
0.270953950211917 0.054882374414194 1.020471835589722 -0.502785959569306 -0.259233530128355 -0.824623705527050
0.239911694079427 -0.073581823395245 1.048266745246614 -0.489209962557389 -0.083810774940592 -0.868129809728047
0.215116196890326 -0.111929971715257 1.060784643382062 -0.470383667912531 0.023487355869712 -0.882149391585917
0.220750601313745 -0.000962176567703 1.058199573021493 -0.474923441185556 0.006953412510327 -0.879999644924321
0.224896336908082 0.105958154904877 1.078711698408743 -0.470494610737472 -0.006103727802937 -0.882381757389568
0.242314909177557 -0.000597499805685 1.040527366912547 -0.488809682477002 0.156890615153556 -0.858166900546433
0.279765679678058 0.126196528982916 1.018188830577157 -0.522087436647673 0.128077279697213 -0.843220563624977
0.301243443993541 0.153498214922111 0.986127264388289 -0.542598124029412 0.181884294370967 -0.820064253129557
0.569705849948644 -0.297895609946035 0.844010632318717 -0.694345203251690 -0.112805818582014 -0.710745795636816
0.532601586053939 -0.089405409116902 0.838959774558691 -0.667508688761148 -0.216302478879241 -0.712492377544538
0.473259308615426 -0.004367605062649 0.898984157761210 -0.613627582203848 -0.213297615417278 -0.760240302546480
0.397211073045766 0.020810251082327 0.957921988719758 -0.553402385736103 -0.162084693716657 -0.816991035155446
0.365578383432740 -0.105156848588567 0.996876762650687 -0.526064113451318 0.019785687493855 -0.850214722943019
0.374115925768919 -0.094341519452551 0.980958535080791 -0.535485892309374 0.085339236674199 -0.840221443324020
0.405154840127626 0.068111381407900 0.971299641959402 -0.559747664723400 0.020858684433105 -0.828400547513351
0.413460847211424 0.129014519613207 0.964350149299211 -0.567143656867353 0.043421833109143 -0.822473474882059
0.416000859225962 0.231824323439219 0.956701870224223 -0.572345765878587 0.030503296066217 -0.819444856723105
0.405477047527438 0.280022262774485 0.960937207775478 -0.564275155966497 0.064382589482327 -0.823072554839812
0.359124997668688 -0.187509238926903 0.771054371409956 -0.522695499359264 0.539090878625104 -0.660432009772984
0.370168757424574 -0.362099214925402 0.494517519620271 -0.519749725877799 0.746922110223367 -0.414689743916371
0.430113206164990 0.279672143601239 0.275433500650215 -0.516053738887946 -0.822540786022273 -0.238987853058755
0.625442191848340 -0.343926376600239 0.797153431972088 -0.688157530815413 -0.209401681879271 -0.694687086685917
0.593199145473394 -0.350249202830001 0.845195934179627 -0.660121451040983 -0.130264110601353 -0.739777622914336
0.613489283964729 -0.230005647929148 0.818024940507428 -0.678908550022552 -0.162583892844842 -0.715995571560113
0.585063982022321 -0.138165503875556 0.820002027942244 -0.664371281146401 -0.172286287259684 -0.727274525891127
0.557637521367420 -0.051003836781532 0.851386782390310 -0.636005856642704 -0.174151607090669 -0.751776408291666
0.519724326018977 -0.081713471769752 0.900774994481158 -0.601704140534454 -0.072888595589947 -0.795386308592635
0.506018459436102 -0.097867771665372 0.902530407083225 -0.594377212054307 0.015551355987914 -0.804035997401538
0.508802724282107 -0.007463128760564 0.894450125598843 -0.599383772175284 0.009718861929351 -0.800402796956461
0.503648889991135 0.085836993519636 0.904406768433814 -0.592312168466569 0.001255558908674 -0.805707588805181
0.499997045983512 0.109746523847608 0.904549711789638 -0.589602505434719 0.054762642960216 -0.805834932552017
0.512400981906841 0.184552355915291 0.912621086532411 -0.593656443085680 0.062288963480325 -0.802304251896627
0.529171580399846 0.146791265942640 0.890236838584009 -0.603836391657114 0.168011393242743 -0.779200733990381
0.706822827448560 -0.237170243336988 0.719294799156246 -0.728778330180885 -0.152470180372229 -0.667558978335264
0.688439311418389 -0.142927606802641 0.719465527849969 -0.719630287210477 -0.167013368690825 -0.673972391428543
0.655905224732793 -0.101701439951649 0.755642097804511 -0.690805063857506 -0.130359129312188 -0.711192562639540
0.623297996923228 -0.078358351833877 0.794989961858422 -0.659035844059458 -0.076353381991614 -0.748225846454986
0.598101100541134 -0.058766299900516 0.824207841932613 -0.635226889774242 -0.019007221488163 -0.772091655206195
0.590054995322207 -0.008702296440667 0.831070023676588 -0.627543907165509 0.009765526286953 -0.778519928502659
0.601731175738818 0.090755836045203 0.837248775422442 -0.629414077109589 -0.007988267851593 -0.777029025914100
0.597691886958035 0.153041016542816 0.846224829810724 -0.623548451468936 0.009082718677477 -0.781731944397898
0.571187103563968 0.197688533942510 0.845634390925313 -0.608773235018810 0.043270697656403 -0.792163363864463
0.552301070188421 0.205491129275752 0.891270867347353 -0.573430801392813 0.108091865859802 -0.812091906466838
0.521658493757594 -0.123417058715458 0.731974049084356 -0.552250178692017 0.487635986477560 -0.676188497999406
0.544258772144053 0.136854022767223 0.555230516710111 -0.502709445537127 -0.697577931438898 -0.510556796974815
0.732080938355722 -0.439694967303213 0.790097628575840 -0.676850387861583 -0.095631209556338 -0.729882335866828
0.738316891152828 -0.249892893324783 0.736679863338238 -0.694621097319550 -0.203140248282183 -0.690098232635352
0.728276054766514 -0.184001573723645 0.676850561718172 -0.718957143110820 -0.201487181128007 -0.665209397266017
0.723054786644011 -0.159415539460340 0.684491079485584 -0.718278152644515 -0.149993657516625 -0.679395612392639
0.719924660280176 -0.132827590520298 0.702576832823261 -0.713208135513443 -0.099160072131299 -0.693903044763715
0.711292595890005 -0.131705147534767 0.719314101808829 -0.703377224512885 -0.023333778587232 -0.710433680798843
0.712293740946850 -0.070526418582973 0.726416173250903 -0.700189863936224 -0.006984055875680 -0.713922528993516
0.707206199726036 -0.004854746307901 0.724563346800893 -0.698475279224822 0.004794811168297 -0.715618120297178
0.708518260867846 0.056068298328985 0.729543120365191 -0.696753388102822 0.021257669871924 -0.716995695690605
0.697545929461119 0.113077195685527 0.738175422260161 -0.686974060681291 0.041786251449447 -0.725479530476816
0.695172389248187 0.181014238477154 0.748434823854470 -0.679449235410907 0.050745443026611 -0.731965597901682
0.667470412151865 0.156089502902903 0.757174961061856 -0.654655388749949 0.151875648315808 -0.740513409351448
0.743433890240324 -0.209445886812200 0.689159331220834 -0.688382317543163 -0.170508925972093 -0.705022333729753
0.769531316452050 -0.203980964971235 0.661348360275557 -0.722918730058127 -0.100640442992930 -0.683564196667242
0.780546842520695 -0.183684211086033 0.646587947887990 -0.739404727891679 -0.044639687403148 -0.671779686117391
0.794016931018208 -0.148969462846255 0.634585619345021 -0.751867150910462 -0.002541953521853 -0.659309734384437
0.805467926931523 -0.085594698335520 0.629877824623868 -0.758987127114474 0.009486933544924 -0.651036511239140
0.815535572994029 -0.019585027903453 0.633467111924422 -0.761374402156241 0.018508240298680 -0.648048196342119
0.803945531377108 0.072169753153381 0.631283949990716 -0.757796185709618 0.001381824347957 -0.652489870791437
0.795715466066193 0.125445375390508 0.638951196990481 -0.750514980356402 0.024077432769975 -0.660414673891970
0.766605428254885 0.154765564085300 0.654512434524215 -0.726358089472214 0.071723915701378 -0.683563900286386
0.728063726662906 0.150994015908070 0.695522772608443 -0.678269370519439 0.152160233022192 -0.718886586675393
0.696203466858745 -0.006112350048716 0.671654345934687 -0.629230376961729 0.382237993922276 -0.676729819581548
0.700449900481450 -0.171402858473139 0.462210933536458 -0.631408391294968 0.621781539177314 -0.463369356928780
0.633950357482900 -0.002537612371823 0.649903309350913 -0.495754577320878 -0.577890184996649 -0.648282602843803
0.695861342037039 -0.220674770010465 0.721546489982798 -0.583962021011303 -0.301853528395278 -0.753573357684384
0.764370439592134 -0.157264243506067 0.654321772032483 -0.660476330342719 -0.294744516590473 -0.690577068108161
0.800466285889776 -0.169955157563287 0.617181090980935 -0.716174952044995 -0.210484829311853 -0.665424356852759
0.828061466215377 -0.173471900324569 0.598361293725126 -0.750036603388235 -0.129321497522023 -0.648630128699323
0.846109529222261 -0.182002875367550 0.582860281402469 -0.771188643805025 -0.041231355312250 -0.635270061474080
0.849380005723357 -0.143560163967762 0.570025856733277 -0.780862607178753 -0.004599134897039 -0.624685870392631
0.855208046512001 -0.075343628250918 0.563785044178751 -0.786298635644122 0.000071383527819 -0.617846623757535
0.854242393915852 0.002336584537816 0.565164325851170 -0.785087684022781 -0.005726382078746 -0.619358165316350
0.857502144245116 0.059160321708203 0.568287326442257 -0.785003741006011 0.011366752192629 -0.619386731817173
0.848513949485360 0.090380938472394 0.571800857580699 -0.777286784912067 0.056202736486535 -0.626631076800765
0.833723326766109 0.122508255548474 0.597730297006044 -0.755115484958327 0.099831999471197 -0.647946121415765
0.792699565638501 0.136504759556606 0.631685949401780 -0.710276655118530 0.163151653406792 -0.684754416695696
0.807319244054290 -0.141058037699058 0.597073547569645 -0.691520749229008 -0.242528197635393 -0.680425695236063
0.836865736059575 -0.164227318321761 0.570106382922733 -0.737452832987030 -0.138750477626016 -0.660992907736502
0.864243960102322 -0.165417441057978 0.556098901960765 -0.765452817491704 -0.056165619006627 -0.641036198225665
0.874673302085051 -0.144480748504356 0.535761550655780 -0.783673605608881 0.000130627500787 -0.621172812354527
0.882507882563412 -0.087553637335698 0.526753031780275 -0.791689545691462 0.015452722547135 -0.610728152788724
0.886712255003095 -0.014653029273649 0.521500286310943 -0.796407878021158 0.012139395504988 -0.604638013114136
0.884193793687908 0.062365319580371 0.524043471601963 -0.794242483122554 0.004166593585573 -0.607586633741405
0.873501528325180 0.098465495707306 0.538615939794029 -0.779842868545204 0.043209038608071 -0.624482249036555
0.843560907187954 0.101133134847033 0.566656976521410 -0.744123203101245 0.120996171281939 -0.656993595966852
0.794998775346003 0.074119902293855 0.600030334084675 -0.683893502872709 0.232102883948860 -0.691677618541411
0.733266989379033 0.027357088396273 0.634508852553694 -0.600023616635077 0.358933275440689 -0.714939552173176
0.733296827569189 0.085141908933426 0.704799467507666 -0.563912098745645 0.350430492581460 -0.747797843509459
0.672999916145349 0.048729121628321 0.696369998109807 -0.497354552812023 0.460954863726393 -0.734955143123807
0.733413785693826 -0.127703557237320 0.642297023369048 -0.526639266024866 -0.464923087002571 -0.711686452486479
0.723086786143953 -0.117193140088240 0.630425908872930 -0.538147338776167 -0.419691360516572 -0.730928589997599
0.726240037693042 -0.065555038485440 0.616253076649667 -0.551754041423087 -0.408450232103613 -0.727142273332939
0.782858102964046 -0.099508638798405 0.597251578750896 -0.631372240626277 -0.294412333185835 -0.717419313814890
0.816750281466050 -0.131635079225519 0.571612960148806 -0.687903176103497 -0.178448041964043 -0.703523643260069
0.840129135349232 -0.159518037575479 0.556905292038287 -0.721537990957392 -0.061186118590948 -0.689665996332243
0.857220626861207 -0.137038862134199 0.542711073780885 -0.740456146832654 -0.004732011610533 -0.672088017066111
0.867267636504081 -0.079175983754759 0.532519076195659 -0.751696759882242 0.007491110387312 -0.659466348229918
0.869504528282319 -0.004606657267680 0.537727050739789 -0.749663813955642 -0.001105394985651 -0.661817908602816
0.860934267871216 0.053678826512262 0.538973396650771 -0.744571012157202 0.010586360325920 -0.667459314737797
0.845646803068328 0.074232004364245 0.551134769683778 -0.727562422707117 0.069423273891718 -0.682519838617681
0.817108244688162 0.074960471240612 0.577276072089260 -0.687219364203977 0.151421105497394 -0.710493627186781
0.776713562749205 0.055385715203094 0.623239109212805 -0.618862942964139 0.251446759004963 -0.744166100552602
0.720897620819763 -0.075753939865447 0.615176354704128 -0.521667551947041 -0.331365436641277 -0.786167865436585
0.766286793531895 -0.122786018297535 0.602226015425210 -0.589880147510865 -0.190659877861152 -0.784659303485616
0.793187778628549 -0.141666757924383 0.582957365605789 -0.633303772152953 -0.081681749001030 -0.769580680667708
0.814038350506357 -0.129928029147843 0.567572509105779 -0.662177092071324 -0.010724184972015 -0.749270639083537
0.823289969302845 -0.075612554782887 0.566962160596337 -0.668658166293410 0.004398366576674 -0.743556931929622
0.822738467814699 -0.007324411824366 0.560845419937289 -0.672176843117271 0.000974358052731 -0.740389993316552
0.815280942098299 0.049765161514221 0.566788335989901 -0.663316247193070 0.012462019015541 -0.748235427049374
0.795488580851861 0.072421743788123 0.589008437580405 -0.631339842881151 0.068556364354150 -0.772470082072662
0.756993683473026 0.048913100350889 0.610915771014714 -0.576619763192803 0.184182417911773 -0.795981460605490
0.703713382348199 -0.005538166593617 0.619669232417099 -0.501456706680769 0.336643163581760 -0.797002228189195
0.630822560848996 -0.074610858701375 0.622500802321215 -0.393491100376399 0.493407805937357 -0.775701934356654
0.594576612734188 -0.053405579168497 0.642486924134308 -0.337640487203412 0.532139135438148 -0.776419243666837
0.560147626178683 -0.127820713508067 0.609777639197767 -0.280278001842812 0.662233837635697 -0.694903292533067
0.492218829905209 0.046722807710120 0.620298896420125 -0.149999159176226 -0.664679676176816 -0.731916101970648
0.530738442656346 -0.001885172250784 0.648198685395218 -0.206376856100384 -0.559503933073299 -0.802722830210796
0.551184785671108 0.022127844913520 0.620132543303946 -0.243145845232871 -0.536685940010045 -0.807990284435108
0.637581254589909 -0.041071365679074 0.628514444287961 -0.368493809507824 -0.384287627585182 -0.846484100051126
0.697488073682214 -0.089815161317184 0.623688734996493 -0.456943386575234 -0.237133751907443 -0.857304103087962
0.732518284407194 -0.128847618064052 0.612367580647635 -0.511968674265044 -0.097315168601204 -0.853473979996703
0.754973809663910 -0.123190058716003 0.607682693035370 -0.540652298108458 -0.016551572630475 -0.841083312159682
0.769455495123745 -0.073409790910945 0.604955976372096 -0.555435820058286 0.002825929424424 -0.831554606697039
0.765343110848246 -0.002753631777421 0.601752576189643 -0.553418169781656 -0.006831368248005 -0.832875537978744
0.755345646771768 0.047378306191916 0.601782539823919 -0.544425092968762 0.012160696285866 -0.838721309859120
0.733143236627129 0.045801851961940 0.611890540139214 -0.511985825315373 0.102893769237181 -0.852809115176604
0.691912574952299 0.014272742307879 0.622229044591833 -0.451201528256402 0.233929534221469 -0.861216670715340
0.629958911129462 -0.028254730916746 0.636538621412597 -0.356740640321065 0.371198238637080 -0.857291072609557
0.549474283695895 0.008257161908866 0.624722518169944 -0.188960243518453 -0.454078209848107 -0.870693405114904
0.630612907434398 -0.065956481581028 0.634629274541191 -0.312562822903775 -0.272863044697330 -0.909862759198840
0.674685819545379 -0.106518175399248 0.629612664663298 -0.380783144053532 -0.127726733762649 -0.915800239510251
0.701730274674333 -0.107381261020905 0.629800864766200 -0.414248872057248 -0.035789201362890 -0.909459732514367
0.714426081207843 -0.067675996814975 0.623582970292007 -0.434875891136135 -0.004152802648083 -0.900480823526364
0.715312987349406 -0.012102673850799 0.623208816640949 -0.435984650791445 0.004942442288244 -0.899940529445413
0.699400118430508 0.027817826781453 0.631004345728420 -0.410369488937693 0.036273901982168 -0.911197611160173
0.672059602368004 0.027031879014664 0.630907192346586 -0.376096908725575 0.128096370426969 -0.917683188867761
0.622188384873095 -0.015398528528165 0.637097454879278 -0.299288886910019 0.275905964553928 -0.913401369002548
0.549397627131836 -0.096655285290645 0.620104227351276 -0.187362250573816 0.466857188990953 -0.864256762858921
0.446579168453589 -0.185925005432048 0.567261227085551 -0.041643725609400 0.649900099580076 -0.758877895766623
0.393937651041050 -0.185654981173906 0.572391736998025 0.026414517570496 0.691116136002657 -0.722260866874479
0.329371559540629 -0.281600732448406 0.453221916601272 0.102420886215895 0.836732324863762 -0.537948862434744
0.149797938705437 0.240734900861341 0.283064951088853 0.366908762927870 -0.867464098837630 -0.335982137790923
0.237399746428836 0.173946527428434 0.462614013990220 0.279300007971919 -0.762390335509961 -0.583740080744756
0.297895221065010 0.180150346674480 0.472076522282493 0.218102789954671 -0.740403982816932 -0.635793296003357
0.426166156759081 0.080762755062883 0.589063228458705 0.047651435474880 -0.551823860886668 -0.832598202768487
0.524764321567692 -0.014632052390555 0.642560875196902 -0.095820719288447 -0.342458282515815 -0.934634000286402
0.583462981118749 -0.087389063197000 0.652953509036573 -0.184556938213324 -0.152396740142855 -0.970934585927989
0.618420202037204 -0.107569127259140 0.652912563154685 -0.237278717454199 -0.033212485104415 -0.970873699858267
0.635198353146684 -0.067419760002735 0.654422633095158 -0.258753306187052 -0.003396859799447 -0.965937465823111
0.634866950668156 -0.007740736267816 0.654543362297771 -0.258093563183735 -0.002869946766236 -0.966115663908148
0.616501730294570 0.028569780702780 0.653475995137505 -0.233909693218584 0.032603424329016 -0.971711516933092
0.585991826509854 0.005947468630729 0.657410909494073 -0.186074215335630 0.154274903023729 -0.970348205895311
0.525944060519232 -0.066711065586888 0.641810498407692 -0.096358785390701 0.345272797406057 -0.933542543138461
0.432531650733645 -0.149629331361064 0.596191166800294 0.040123030390004 0.536928590715575 -0.842673027279567
0.202516070662044 0.154048787380148 0.457361882663149 0.420628693148263 -0.641109381258681 -0.641911414264068
0.315361834716351 0.034665751204269 0.593963367404723 0.276078442584680 -0.407922031744608 -0.870275996197395
0.400474997224734 -0.055765108310834 0.657061466366669 0.149957673484658 -0.192192008363870 -0.969832422681429
0.435496155214557 -0.086888007480956 0.667782345783467 0.101930141164986 -0.059926898123375 -0.992984900793258
0.458145897532276 -0.061461088654716 0.670976929311627 0.066323379387833 -0.011209742734396 -0.997735210872307
0.458798869420577 -0.014903151116979 0.671041028543863 0.065519576371841 0.006436385773389 -0.997830525715780
0.434877395870035 0.004950487907718 0.667536446596093 0.103350642531415 0.063448139067194 -0.992619251444003
0.398341369928395 -0.030250543810068 0.650158519032645 0.155082049863968 0.203196834686430 -0.966778466963040
0.312728289677222 -0.120663554155414 0.595585305097023 0.279043191976952 0.414305427845441 -0.866305898322942
0.200806326763989 -0.230401825677866 0.458774141705883 0.424449057471457 0.636587870429850 -0.643893532218782
-0.036729801555974 0.078528769124396 0.206798052293697 0.836936473359417 -0.458650457455718 -0.298625346272487
0.057607662323061 -0.030649845390905 0.439554873183562 0.722595821610255 -0.225044597348332 -0.653613194324998
0.105962592305411 -0.068102657821828 0.507657112638807 0.650343194856269 -0.084907082336906 -0.754880464890419
0.119477443553962 -0.046428857479677 0.527272152551059 0.627113279149749 -0.032218072637002 -0.778261479780161
0.126217918485901 -0.014080006332054 0.532988139223432 0.617325589093039 0.003847944011920 -0.786698360477390
0.111749533142458 -0.006726606595278 0.506257367939951 0.647037211836931 0.078196163418230 -0.758438004404420
0.053743885934688 -0.058390573730656 0.431274855936132 0.729154673384412 0.238886200171256 -0.641300901020270
-0.031989626325134 -0.165779037289714 0.188744170332646 0.837244109293856 0.472918334170392 -0.274536975029303
