ply
format ascii 1.0
element vertex 260
property double x
property double y
property double z
property double nx
property double ny
property double nz
end_header
-0.328294505652539 -0.378871676233831 1.276125092357636 -0.286891186083198 -0.022776267834629 -0.957692377003859
-0.323223356706913 -0.294434097619390 1.280020208688098 -0.289070625317792 -0.023288751159847 -0.957024455093910
-0.322699094662758 -0.222910628616865 1.274669407107963 -0.291044116505024 -0.014487774913310 -0.956599930287407
-0.323238201488237 -0.143682695110254 1.279501612557494 -0.291060905553709 -0.011390164129004 -0.956636719669159
-0.317837867114345 -0.071724070438351 1.278233025936429 -0.294367997465551 -0.002731838086234 -0.955688243690793
-0.320355774088435 0.008914314177131 1.273680071834679 -0.293830053053526 -0.000637906664155 -0.955857464791508
-0.317080966797364 0.092950358676003 1.282630075351949 -0.295299663692516 -0.001006541295858 -0.955404152962351
-0.311830051974690 0.160765736585680 1.281343540916027 -0.298198324463195 0.010530753815105 -0.954445840533358
-0.307075382524663 0.233123709907452 1.279680026687131 -0.301738379347974 0.018732115505853 -0.953206723789301
-0.306646515348545 0.307462553181291 1.284136607165222 -0.301962446253029 0.025561251019547 -0.952977073963063
-0.304765994945673 0.387650449535745 1.283915658358998 -0.302296227707339 0.027643779462773 -0.952813104533584
-0.303160916643874 0.489527593067027 1.277169751921694 -0.307793404967548 0.014878643875654 -0.951336872939814
-0.294690851705977 0.560984670902151 1.280280988898074 -0.311045475382305 0.023038046859222 -0.950115761705440
-0.181032116432743 -0.530853453270529 1.284625622926879 -0.313869808245792 -0.077262326504619 -0.946317217625698
-0.184780713931327 -0.460864013738720 1.239670286430308 -0.320588976984476 -0.071569937518825 -0.944510694423096
-0.180691445768610 -0.398999199182232 1.228931419288024 -0.326215172225261 -0.057953161447047 -0.943517404443785
-0.177321163292034 -0.361240416967132 1.223771237462860 -0.331299867339598 -0.025668699921090 -0.943176290915503
-0.170755116167746 -0.288661447768131 1.227329832628281 -0.334237794864597 -0.019463744132457 -0.942287779369126
-0.171094940876474 -0.224908246791520 1.222244520726807 -0.335543932961048 -0.006853099199956 -0.941999630617967
-0.171263114024371 -0.139316408281318 1.226923145944724 -0.335500050102704 -0.011035898409976 -0.941975543911501
-0.167741248288787 -0.060580196623894 1.226062334469493 -0.337387680108141 -0.009812180960177 -0.941314652183876
-0.166146474070607 0.014826706823967 1.220100542693620 -0.340160869535869 -0.006136188523359 -0.940347239070231
-0.166470387590523 0.088452447941955 1.224946093297428 -0.339909494485604 -0.000968550301831 -0.940457653203404
-0.162542579028754 0.148821580641938 1.223802017359631 -0.342037125990054 0.014190616447902 -0.939579283961333
-0.160591965876203 0.214467042230232 1.228009528256498 -0.342427289309527 0.025277844698081 -0.939204228112049
-0.164085112633866 0.289035114141682 1.228480355839139 -0.341069886285868 0.029836396572027 -0.939564325689594
-0.049406168346590 -0.338587381074129 1.194994648707111 -0.361516696059770 -0.033330051654730 -0.931769706594243
-0.041583982762318 -0.264170725324428 1.192596674785837 -0.366525879568819 -0.030738878917294 -0.929899941353483
-0.041277732569560 -0.203673102456614 1.182116610850310 -0.369726256194906 -0.017717140676243 -0.928971796346023
-0.040965600312642 -0.135863714014193 1.181502877586742 -0.371215632715261 -0.010306246080270 -0.928489491227306
-0.038556997228636 -0.067824705210709 1.181060201334466 -0.372215850375903 -0.002916969135544 -0.928141612050664
-0.040477271449386 0.008419563572951 1.176323696735476 -0.372409918077977 -0.002071579964632 -0.928066032927401
-0.041772615037911 0.089333754401976 1.176129454527847 -0.372766264073908 -0.004814195148240 -0.927912784637358
-0.035571500917976 0.152016162420579 1.179397739259849 -0.375409643666681 0.006647428856330 -0.926835158553912
-0.034965376106032 0.219465556240488 1.173433101936606 -0.377770915423996 0.014504194654336 -0.925785484762612
-0.038984019259778 0.282682421438746 1.179329874825859 -0.374709069767756 0.025856492848158 -0.926781826975139
-0.042736889561626 0.348179516278801 1.180676927831532 -0.371326724422305 0.035051795898348 -0.927840414798850
-0.039201331156480 0.437045731065750 1.184593923681522 -0.373468044438718 0.026125327856434 -0.927275087030550
-0.041742983752987 0.478091411315288 1.189980191678811 -0.369010889278828 0.053918065365693 -0.927859798579974
0.087935662075774 -0.464433896435786 1.141975352199223 -0.406077419870099 -0.101972157238264 -0.908131492802567
0.092568150337447 -0.398593139882004 1.142122983958534 -0.407698251757036 -0.094159876901227 -0.908248893804007
0.090184149572989 -0.358597686348205 1.139322954831743 -0.409863473753367 -0.067591912686274 -0.909639085694010
0.088925567203955 -0.335885834497583 1.131249282154091 -0.412749090372355 -0.026396453178807 -0.910462198916777
0.095932959208382 -0.268928133184108 1.134532122764242 -0.415353902984872 -0.019790850139259 -0.909444587386169
0.096015916415853 -0.207678535367496 1.129275362333247 -0.416972976294405 -0.009079735215564 -0.908873531052919
0.093682958816636 -0.127425916269036 1.124135568050662 -0.417891836435426 -0.013773170565426 -0.908392378222761
0.093573502676059 -0.051230605981329 1.124714008494992 -0.416831819277718 -0.015002985561272 -0.908859804844442
0.095954836640686 0.012461927048097 1.123610067657786 -0.418993849733407 -0.006225154465481 -0.907967731440639
0.092065225669768 0.081159493477934 1.119096582740640 -0.418991403074364 -0.001404776415036 -0.907989113785512
0.092959203996321 0.135941478917047 1.118908866346125 -0.419069842665209 0.014587538955626 -0.907836808394425
0.094736921144362 0.200505206329863 1.123048539093753 -0.419408903662073 0.022684003092030 -0.907513970984854
0.091414764557269 0.266927721567580 1.128783560494797 -0.416887634024365 0.029545600691209 -0.908477714683945
0.215079862460409 -0.309882428480494 1.071469518105060 -0.459477511979956 -0.038712195618464 -0.887345356608748
0.220570675287147 -0.248132553428812 1.070054824847803 -0.462394168537762 -0.029794056938464 -0.886173767989901
0.214012195065460 -0.192746013793497 1.066369534609122 -0.461870906419783 -0.016493534270915 -0.886793791774740
0.220232463613646 -0.129858840641704 1.064717626940211 -0.464712488540161 -0.008579818773396 -0.885420063983546
0.219141402724507 -0.061322238248539 1.069515169073988 -0.464171289561060 -0.005741472979796 -0.885726848094402
0.219555916814620 0.012849245861066 1.069133234986301 -0.464750276119168 -0.007439412969398 -0.885410546572508
0.223671964522592 0.083691936070960 1.062474800394229 -0.468281468430076 -0.006569345821248 -0.883554927562771
0.219933550562262 0.144579196638394 1.062690735677134 -0.467978975303457 0.003002170162795 -0.883734499523607
0.217689705160289 0.203972811539358 1.063263704338625 -0.466886389748743 0.013712789941821 -0.884210980738984
0.213123652582077 0.261725021606990 1.066105084859422 -0.461890496933955 0.025375830155393 -0.886573875142973
0.201829332964674 0.306463347486979 1.070676773304116 -0.452677093983900 0.048109980637115 -0.890375695055400
0.193611382820105 0.375990853394088 1.084886233043042 -0.443724208990649 0.050284407241225 -0.894751532406635
0.178893701970450 0.393396418737117 1.087771706986712 -0.431367209473733 0.095277241049154 -0.897131304731312
0.310915281255022 -0.369544967423704 1.011962310114358 -0.486421829642575 -0.157473763580260 -0.859415974619414
0.304438097942782 -0.336965253948194 1.009951037197255 -0.485334035304437 -0.127010715595726 -0.865054421582234
0.313857749060416 -0.316967228940550 1.011729203968331 -0.491941472920433 -0.083887211267797 -0.866577476632405
0.325394976139907 -0.302828760123775 1.008970696977565 -0.501812796011425 -0.036287995956758 -0.864214729745240
0.325376092379833 -0.251061536646638 1.002803023224649 -0.505392576191627 -0.021313973415921 -0.862626256537335
0.331613030065448 -0.191579623100063 1.005478426338936 -0.508075859808183 -0.012370058609620 -0.861223491510868
0.329701038018192 -0.122068582360470 1.000190911083231 -0.509504530007118 -0.012354403512432 -0.860379278351169
0.330957601314069 -0.050303602873669 1.005996285114365 -0.507279875145124 -0.014036272986810 -0.861667053631150
0.329489374830294 0.014169143527312 1.000965933690759 -0.508435024304176 -0.009678488469520 -0.861045964465172
0.326636540752151 0.077556886258063 1.001604676421661 -0.507578121600185 -0.004216836756991 -0.861595420577775
0.324764652690067 0.126248525141714 1.002872768901794 -0.505552200981174 0.013762313782069 -0.862686252818749
0.322304501082272 0.181976482692998 1.003328623799408 -0.504406458968990 0.025880951673206 -0.863078386064009
0.320872462267171 0.232592764436271 1.004081783595506 -0.502207797466206 0.042003172752194 -0.863726265458502
0.452744358562745 -0.277775948132740 0.936858984221696 -0.564888671015050 -0.050631796583879 -0.823612293821273
0.448609447628676 -0.223608830427228 0.927319514567576 -0.567458796792284 -0.039447376966742 -0.822456332210712
0.452719034379447 -0.177193408201057 0.925774341694134 -0.570434240813553 -0.020560571562409 -0.821085890637814
0.449512113643598 -0.120610354290342 0.927595118832061 -0.568369847719273 -0.010915964735290 -0.822700770582761
0.452704392950688 -0.057226944695076 0.926361116132583 -0.570010035882905 -0.007185263952535 -0.821606311425796
0.451423845173804 0.009568264771068 0.927069566649001 -0.569110361172803 -0.006601434182666 -0.822234648912641
0.445862071920454 0.080440058938637 0.929577519454339 -0.565841710055588 -0.009514249024859 -0.824458997298750
0.442728948414952 0.137070062073303 0.932018138169981 -0.562755162700609 0.000089471010453 -0.826623625871381
0.432992543441922 0.183733706116086 0.937474803178610 -0.555263122154421 0.018754881713443 -0.831463240069722
0.426539103082769 0.229176974672156 0.941569486091503 -0.548783065731716 0.038127090011029 -0.835094887886036
0.415429940000566 0.264429707698577 0.952157294339092 -0.537301417021118 0.066594792103089 -0.840756992793902
0.414511977419137 0.324884508054484 0.958871086588019 -0.533120526311057 0.072075557358511 -0.842963592604853
0.406139868917378 0.365098802383104 0.966904338065499 -0.524022663032907 0.095743399014742 -0.846305766359301
0.519707760794572 -0.394332128421401 0.895130715664520 -0.577541720771730 -0.114832436028476 -0.808244438523270
0.522283839608521 -0.352460083835820 0.884342183650125 -0.584674623692580 -0.094213493435602 -0.805778755034284
0.523646412432616 -0.292636877604870 0.876793350061254 -0.589760808923266 -0.089914978497499 -0.802556842161332
0.546212844065044 -0.270274803398418 0.864080601944597 -0.609844936214463 -0.050338659135221 -0.790920459445857
0.553167214148089 -0.227983613703951 0.852608867006192 -0.620046803917323 -0.029549553116341 -0.784008153568913
0.559205790544918 -0.178790909576767 0.855404439041986 -0.621880380808508 -0.014451550738714 -0.782978891571613
0.554299232276568 -0.124131712364679 0.852470723445068 -0.620892593150203 -0.004771753245820 -0.783881125006960
0.544839828498632 -0.055111836394073 0.858003526922673 -0.614378246116886 -0.008225924210164 -0.788968760388666
0.540365248006419 0.008326389537144 0.861288770647993 -0.610501162468552 -0.006378608778416 -0.791989674159075
0.542546294285620 0.078630050710696 0.860985862788127 -0.610796384111461 -0.011011394679645 -0.791711138195980
0.540705348639667 0.124757566720605 0.862616096356151 -0.608912366641418 0.006580481885164 -0.793210203545887
0.536892942776888 0.172485236773031 0.864091653292510 -0.606742240634101 0.022958143050518 -0.794567037510355
0.537573456337702 0.215164227638531 0.869361995961620 -0.604060346411579 0.043423212771295 -0.795754687379058
0.642577424277590 -0.250992171597846 0.782254235544918 -0.666100349184384 -0.062553255280172 -0.743234428071181
0.655527871825086 -0.211680705654827 0.767912578800789 -0.679002322395536 -0.039163414117348 -0.733090767351589
0.652555799163847 -0.174616286617267 0.769257916519580 -0.678590624720754 -0.014421427295669 -0.734375099302702
0.654168314480808 -0.126994834208218 0.774173134547253 -0.677463142571735 0.000663297159115 -0.735556422372688
0.654797470072635 -0.060512280820542 0.768074599724997 -0.679960642291261 -0.002155875478048 -0.733245441264914
0.654062098772749 0.008910995390867 0.768482799922701 -0.679497370061200 -0.007925803561631 -0.733635131191122
0.642300771496891 0.075215419132736 0.770714216258457 -0.673298653817004 -0.010629699860285 -0.739294212238328
0.643001161410162 0.126986802327627 0.776994295006508 -0.670664460433079 0.000547366278843 -0.741760663490700
0.634864358286552 0.164627288636527 0.782420965044724 -0.664402613900150 0.025454422116031 -0.746941255412624
0.629004572658394 0.207554898762829 0.786942014653944 -0.658475286805691 0.044975282559695 -0.751257293225722
0.621806323883582 0.236200670561452 0.798920332160626 -0.646425447722276 0.077123870229250 -0.759069199202495
0.617662877757576 0.288010407100043 0.804977018972105 -0.642410724739119 0.088721341265834 -0.761207582952345
0.623683415594394 0.313959692027694 0.809783065884169 -0.640037917786232 0.122104005543236 -0.758578984434819
0.693109987522479 -0.330088518259332 0.758290303108285 -0.664286006408108 -0.156637423299493 -0.730882219863408
0.702499348071842 -0.311085953126417 0.738203702693691 -0.682016418693438 -0.116738700040817 -0.721959611436372
0.701587188141080 -0.257938104403411 0.725937039401355 -0.688402435284369 -0.109768603041933 -0.716974853729733
0.717717561200989 -0.244428475241120 0.713568913068760 -0.706648751891672 -0.062942044195074 -0.704759420314824
0.727180932549835 -0.212068089213992 0.698168803624358 -0.720149350645228 -0.034283947444706 -0.692971517245020
0.734753106829426 -0.170556753907998 0.692217575195234 -0.726459955178824 -0.014077700067494 -0.687064590764500
0.735364666998604 -0.124569964462056 0.691223767258938 -0.727526552686984 0.001358243483895 -0.686078180902171
0.732712880408299 -0.055369950672194 0.691740399339308 -0.727016868571619 -0.006270305256290 -0.686590967086161
0.731931894357772 0.009680358905361 0.692270322234578 -0.726483299414486 -0.009608296680259 -0.687116945145982
0.733863522800640 0.074432006492382 0.691922554920444 -0.726760037871049 -0.012821382845371 -0.686771766670416
0.727353402400751 0.114659369726530 0.691564588863052 -0.723913453153678 0.008372697905956 -0.689839988890825
0.725976327028251 0.156337150358210 0.697920118122602 -0.720643837794453 0.028372039251578 -0.692724683000100
0.721401642014296 0.192065831466828 0.708409590125719 -0.712448864377782 0.053732604701515 -0.699663792716759
0.790614960443262 -0.222915988698500 0.620157562137104 -0.760526283325348 -0.080324941347277 -0.644319545077510
0.805420003743645 -0.198342279247657 0.613176792255106 -0.772298433431232 -0.043417285525505 -0.633774462279179
0.811084477065132 -0.164900765794971 0.601144433691709 -0.780810951627308 -0.015874898817159 -0.624565645393983
0.808339259579774 -0.118098845445315 0.596324954013377 -0.782382526176712 -0.002368088528839 -0.622793685653657
0.806071230655624 -0.058509995045765 0.604623423504928 -0.778064899512404 -0.002161774539840 -0.628180180264860
0.805299755584746 0.007060552451695 0.605239899330387 -0.777509116147554 -0.008008337318830 -0.628820674628973
0.807626738353301 0.063991532036557 0.604310595426820 -0.778313789227028 -0.005053556903507 -0.627855164079813
0.803731417600785 0.113037836083363 0.608944285535610 -0.774397716836469 0.006133693091704 -0.632669387569464
0.796439796442758 0.151025358109868 0.614983259002813 -0.768699939895988 0.029179102136772 -0.638943645717208
0.791487342603177 0.180407050451719 0.626409965629567 -0.759696813092953 0.060551231015166 -0.647452160857433
0.777869423448189 0.196096537774764 0.645883565666831 -0.740180164160993 0.105077382464068 -0.664147625364350
0.773975008126813 0.238379804736469 0.654457008971579 -0.732630092008967 0.122451875270690 -0.669521236799569
0.767817631393029 0.254043884155555 0.664178925543954 -0.720989689071825 0.166738116713612 -0.672586253715396
0.825614068412374 -0.262110694013923 0.599037581779369 -0.747139712543510 -0.215066028118040 -0.628910847012461
0.833727079100332 -0.253159795876136 0.586362495321721 -0.765191159521258 -0.165620623094659 -0.622135273550897
0.830910465677344 -0.213771509047452 0.570439500895600 -0.774521799378599 -0.147834956360952 -0.615029111477736
0.855948002926657 -0.204903275116823 0.541322723610589 -0.804195464133515 -0.094529186436001 -0.586799700390881
0.867568124927607 -0.189905242897515 0.521404657483424 -0.821428635245477 -0.047991968979688 -0.568288455022805
0.872977488133816 -0.158574112642731 0.512302347151687 -0.829374847461382 -0.019049814038742 -0.558367680819277
0.875672184435939 -0.118661686834850 0.508212077815120 -0.832576266652140 0.000944092160196 -0.553909621596861
0.884570257522407 -0.059260646451276 0.505985463278714 -0.836154634560288 -0.000241662699182 -0.548493727131396
0.883855586337426 0.010351448954068 0.506589708140643 -0.835628663607706 -0.012665041741018 -0.549148735111807
0.878939010711459 0.066792744798740 0.511198298489661 -0.832352543493108 -0.010635778136456 -0.554144497007762
0.875413923165310 0.103562713537843 0.516093686310159 -0.828766692192044 0.012656229649100 -0.559451150471717
0.866916613280524 0.135519089964235 0.520526364251840 -0.822469212053636 0.040984378234346 -0.567331187195465
0.855800439799168 0.158080390381310 0.540764094752456 -0.806274312712354 0.079360960958349 -0.586194140653068
0.888644636085503 -0.194543373799621 0.488553230772782 -0.824288969151849 -0.102813685136984 -0.556755818544481
0.899386920120249 -0.181208299682429 0.469300567152546 -0.841303515668732 -0.053788202555962 -0.537880306192029
0.906738309244683 -0.154301112186300 0.456943473458069 -0.851655140966456 -0.020088689157151 -0.523717448089477
0.913190640085583 -0.112887390754954 0.446383520348395 -0.859211209708030 -0.002618017827045 -0.511614349969506
0.920168029236568 -0.056714805685924 0.446844456615190 -0.860631417195424 -0.002005302641754 -0.509224451983123
0.919298206641404 0.010165268458155 0.447775531327328 -0.859894377637484 -0.013797169711206 -0.510285505786128
0.911672629198277 0.059069456289494 0.447788805697773 -0.858239876257136 -0.004941880168163 -0.513224992203751
0.907044226732527 0.100267123630957 0.454821498138065 -0.853286767309550 0.012776558525223 -0.521285384685461
0.905917852143813 0.128181613294713 0.466567659612138 -0.845732528169800 0.045061052798283 -0.531701036595029
0.886764818959323 0.145322940876972 0.490298035878966 -0.824436089176157 0.090055834612060 -0.558744200431870
0.857760850030577 0.152466188101472 0.526185465632058 -0.789349768540446 0.146355225717377 -0.596244153690717
0.844668751202436 0.187702615189037 0.544739729041854 -0.770958416050489 0.169951256309338 -0.613791243990821
0.836373255522862 0.185079258688735 0.560804022810522 -0.748238092283149 0.232410946041542 -0.621389498959027
0.871696323658896 -0.193359495004470 0.498877850449931 -0.762553336546469 -0.289750443794353 -0.578409101970935
0.881822534538141 -0.193773833187762 0.491799701045110 -0.784264134215039 -0.228312011720215 -0.576891144920950
0.884763155373969 -0.164999809508974 0.480975142564718 -0.796444678982261 -0.199399224792749 -0.570890376931415
0.913869512064821 -0.170723386287001 0.444999353341298 -0.837379156634068 -0.128340498512292 -0.531342511452296
0.930210937176817 -0.168748501946496 0.418759113662617 -0.861821648493033 -0.065118445517224 -0.503013950345486
0.937434357464175 -0.151123785105670 0.406716246440805 -0.872300011331088 -0.020334678694622 -0.488548043772739
0.940698043759600 -0.118319276969688 0.401057476442982 -0.876283414437767 0.006604467904910 -0.481750722454032
0.946721454134810 -0.062046709452583 0.392594390731256 -0.881804240562807 0.005385819968892 -0.471584853731238
0.946324500370896 0.011043478537259 0.392723041056385 -0.881588534107050 -0.016235939182745 -0.471739388656318
0.938201392163317 0.068761219323064 0.393710569409388 -0.879350775161515 -0.019302686284057 -0.475783165449412
0.936773409631736 0.101877374386860 0.395909769312831 -0.878088430079673 0.007423031682967 -0.478440808837258
0.933491309913306 0.117604358038151 0.411496062465224 -0.867591057492338 0.054438803836934 -0.494289564522791
0.914564129628382 0.123494167893582 0.443716728623583 -0.840547294661348 0.113051003164968 -0.529811019252039
0.897833596563207 -0.158042033438215 0.454986917645904 -0.806158362247047 -0.143176574280424 -0.574115984411235
0.917595110199815 -0.158786210792991 0.428162362999975 -0.835943438845293 -0.074771600579796 -0.543698238730127
0.927781155044888 -0.142736887335921 0.413576919606774 -0.850556490074458 -0.027253128990112 -0.525177040770506
0.940090159266056 -0.111351051463940 0.403496733634243 -0.860680477963713 0.001164519992735 -0.509144143387057
0.933092498098449 -0.059455186908058 0.402782812342896 -0.859294118470787 0.003437107561268 -0.511470237895741
0.935481293287479 0.005003103716183 0.398310572525878 -0.862597224935151 -0.010064109107184 -0.505791203207464
0.941691906277953 0.058276165933235 0.399620033118712 -0.863504147836234 -0.009491890087016 -0.504252407720772
0.933434539032687 0.093682140923296 0.402926691289976 -0.859081887685065 0.013768728679129 -0.511652941320604
0.920208778380548 0.108481416810370 0.423000259659330 -0.841144716170975 0.062871004905882 -0.537143186868990
0.900237617945369 0.106518290908170 0.450853757014499 -0.811598463960621 0.132890915305290 -0.568900639765929
0.860625407254538 0.097526327987528 0.490162877032954 -0.759866458315635 0.211754430399150 -0.614624297220004
0.847828116661155 0.128644043338728 0.523471768910369 -0.727892394733237 0.234702007425220 -0.644272946351222
0.827317995657864 0.114052553550247 0.540246273079417 -0.689856718950692 0.312832595627541 -0.652865586802920
0.817731839317109 -0.128915089850651 0.531966697656437 -0.647187060943624 -0.369056503744052 -0.667042881073901
0.826087414481307 -0.141660888574769 0.526016277617947 -0.674870388886124 -0.294673379489399 -0.676548267032729
0.829900583177646 -0.119484665295357 0.513499097599702 -0.691956171637467 -0.260140892845849 -0.673441439475018
0.864752927412746 -0.136233517123977 0.481981123244030 -0.748455615521741 -0.171946636210354 -0.640506476071800
0.888193313843029 -0.145224819069443 0.458851242191994 -0.784197704935575 -0.090690786775621 -0.613847815641464
0.897600405538048 -0.140010463659058 0.441307415543348 -0.803716165481546 -0.028005991634844 -0.594353421607203
0.908197387926443 -0.114627466116974 0.435844981996880 -0.812377877688147 0.008444762834111 -0.583070210029271
0.912508561794684 -0.061774461879248 0.427628300334376 -0.820161924958528 0.007822142016681 -0.572077993758362
0.912467998720148 0.008497707487645 0.427263564210802 -0.820384991018720 -0.015914724146246 -0.571590052455922
0.911325407498056 0.066768054013671 0.430252960905945 -0.817392837872306 -0.023790107649468 -0.575589245359123
0.903671225577233 0.094806595069496 0.431982461539863 -0.813286179604672 0.008982141113805 -0.581794560996448
0.892501433847209 0.095755927222495 0.452773877992348 -0.791896851642022 0.077495876021044 -0.605717562531568
0.868486605802111 0.089090473847010 0.478514777635544 -0.755891956653220 0.155751382530437 -0.635900036724975
0.813783459372953 -0.115685848750415 0.529090344531849 -0.651185271247222 -0.199216379621941 -0.732304975130586
0.838798842639907 -0.136321968404358 0.507488428678699 -0.694608844248431 -0.100984606034706 -0.712264461303436
0.850072593040965 -0.133837583056372 0.492704588542817 -0.716881828605358 -0.033231860769537 -0.696402245290200
0.861927548061548 -0.116008425790093 0.488185980953918 -0.728249144150831 0.013810284706615 -0.685173306601989
0.862680652013023 -0.061865164186968 0.485925801900436 -0.731289523764102 0.009491958947786 -0.682001125474296
0.861034001743793 0.006690784357682 0.487402091728999 -0.729261986464783 -0.014863836399567 -0.684073111198595
0.853434187629816 0.055793665287047 0.489256356725281 -0.722246221236537 -0.012200043938816 -0.691528419399690
0.850019594558751 0.085895635994320 0.492122995791921 -0.718232965481541 0.017595005664380 -0.695580206066319
0.833274505492109 0.084251583119172 0.512395770487229 -0.688835517643569 0.091247411499333 -0.719151958578566
0.805309048152958 0.067345694387291 0.530955623818432 -0.646443221429215 0.185740574610310 -0.740007838074470
0.761001220849862 0.037236899718570 0.554459985817738 -0.576460390849772 0.294668403298684 -0.762144310402389
0.743995889030785 0.054344950305053 0.577628950514756 -0.540269117561192 0.333121869892808 -0.772747759885960
0.715817711192234 0.018104898603653 0.578211469312242 -0.490017345541674 0.438539228957205 -0.753369992589240
0.666529111679886 -0.037408435363630 0.586538673697834 -0.379248676247547 -0.490375314642541 -0.784667122003791
0.683733556492939 -0.070936837160764 0.586959407951179 -0.418759519109347 -0.394227351926098 -0.818061892614883
0.696909932545543 -0.061308915403901 0.572874305318628 -0.451630757347401 -0.348503408768956 -0.821325168915595
0.746041947264042 -0.097631898628994 0.561420272308355 -0.530208144995034 -0.228090550527681 -0.816611305175788
0.778453977060057 -0.122425962978231 0.549646213336696 -0.580581336597436 -0.119786771235118 -0.805342437123364
0.792558180922673 -0.128581455229685 0.537802856132046 -0.606980912703584 -0.038050848796996 -0.793804953700437
0.798696278870595 -0.108730180007460 0.533833427097480 -0.615709689183271 0.006530818526071 -0.787946017856058
0.802801770052839 -0.058592689183283 0.538026498273247 -0.615236497306020 0.006326384810633 -0.788317213587174
0.801177890802272 0.008319855085600 0.539003951636474 -0.613145385331210 -0.018672271710159 -0.789749379687141
0.796025924624806 0.060257496940691 0.535269314787446 -0.612641381956123 -0.021614489897882 -0.790065409280362
0.787723473084104 0.077905546090785 0.541046190825800 -0.601301057418087 0.026222025392411 -0.798592163580516
0.766769214950721 0.064763467019241 0.550943605308059 -0.569655731716602 0.119149713490661 -0.813200893443629
0.736208916721541 0.042398010595645 0.561447256355919 -0.522287950145745 0.224699089227279 -0.822633342646034
0.687778722702179 -0.072141514361335 0.584774363539528 -0.402700694846621 -0.265216334570909 -0.876066462231502
0.721350989709818 -0.104660961143712 0.570700700927890 -0.462227339596163 -0.146136402455723 -0.874637089544659
0.746341149288451 -0.115459746424913 0.569091933475747 -0.497862383557869 -0.054545198096432 -0.865539062320528
0.753638075204077 -0.105606696256470 0.560307386350754 -0.512440795964486 0.004889325998860 -0.858708638085446
0.762663602015946 -0.057529250664596 0.559927469272343 -0.524157715057652 0.005908818273768 -0.851600713722193
0.763514609377805 0.004252385590912 0.559224683188426 -0.525745468056886 -0.013685617752766 -0.850531837548937
0.754610175927892 0.048397700499102 0.565195954107461 -0.510901273188957 -0.006657033154878 -0.859613618414388
0.745507914519449 0.070130186444792 0.563911769746963 -0.501877531841095 0.034942249127773 -0.864232597313352
0.721513127933123 0.054184337509647 0.571168660957892 -0.464541847602585 0.133999158211024 -0.875354269667266
0.686308401699604 0.016458760236639 0.579758307538923 -0.406141038024562 0.263130019243500 -0.875106879304035
0.633113045258819 -0.037503883058999 0.585074621584792 -0.316550296106180 0.406096771690833 -0.857252192798230
0.604904883499022 -0.038937101939619 0.587031057712055 -0.268201792959495 0.468765293796002 -0.841621588117641
0.574987263179501 -0.103312917010122 0.563516382520932 -0.215636586297603 0.601389800669706 -0.769305641666801
0.499333813824380 0.089293541528330 0.541460882985214 -0.059977555409881 -0.659364939035078 -0.749426827661195
0.535591731228483 0.037669289936073 0.575745496421980 -0.114097247711950 -0.543832203440212 -0.831401438876504
0.567063184813653 0.026453208377419 0.576176674517975 -0.166915109297451 -0.476496826025516 -0.863186029240412
0.630248268245280 -0.035778832657167 0.593267490320993 -0.267683530673853 -0.318842445413990 -0.909222207388495
0.674617753004884 -0.086123822959578 0.594286535631803 -0.339581971929008 -0.170686390563337 -0.924959588531989
0.699963461807787 -0.113347075597901 0.587856926110372 -0.382991228931745 -0.054742367101714 -0.922128511545681
0.713530082618556 -0.102965761376962 0.583217896111458 -0.403771804228890 0.003857058097404 -0.914851601743463
0.722537432300388 -0.055553013031437 0.584128570684518 -0.416449588540833 0.004108397327902 -0.909149526357225
0.724503439150414 0.008713560531720 0.582976939346378 -0.419802581416898 -0.021653599745545 -0.907357104041054
0.716265082542326 0.055188533448655 0.581615128629338 -0.408946486367472 -0.020078257849759 -0.912337456673471
0.704443665568377 0.060715264474604 0.585877039032773 -0.391494670295007 0.046141137647857 -0.919022806325918
0.675484587951661 0.028886740554053 0.588227580318347 -0.345669151449766 0.170643555340925 -0.922709929911133
0.629446009046350 -0.022344353743336 0.587493635315486 -0.271129208099755 0.321322799109341 -0.907326077707313
